ply
format ascii 1.0
element vertex 1252
property float x
property float y
property float z
property uchar red
property uchar green
property uchar blue
end_header
63.7475 -4.37936 19.8905  255 255 255
58.4383 -3.89852 8.68585  255 255 255
57.9638 -3.94786 6.93949  255 255 255
60.8385 -4.40716 12.8878  255 255 255
60.8358 -4.40732 12.8965  255 255 255
-7.71743 -4.98845 31.2641  255 255 255
54.3178 -3.89736 -2.63345  255 255 255
-19.246 -3.8916 13.3794  255 255 255
51.2609 -3.70601 -8.41688  255 255 255
51.4827 -3.69896 -8.97901  255 255 255
60.4883 -4.94044 11.7765  255 255 255
61.6907 -5.14407 14.453  255 255 255
62.8313 -5.31181 17.2041  255 255 255
10.8068 -5.88112 28.7122  255 255 255
62.1482 -5.91479 14.4196  255 255 255
58.5317 -5.66175 6.40889  255 255 255
-46.1247 -2.79402 -26.4191  255 255 255
60.4887 -5.94368 11.2273  255 255 255
60.4975 -5.94282 11.2118  255 255 255
-46.0325 -3.46602 -25.9589  255 255 255
49.3918 -5.43995 -14.0242  255 255 255
60.0811 -6.65264 9.90963  255 255 255
61.9247 -6.88702 13.5674  255 255 255
49.9638 -6.04832 -13.4386  255 255 255
-43.1406 -4.35946 -24.6713  255 255 255
-4.53812 -7.38215 33.7921  255 255 255
57.0581 -7.0678 2.71597  255 255 255
60.5151 -7.32631 10.7114  255 255 255
48.8673 -6.44358 -16.7343  255 255 255
57.4028 -7.56075 3.19377  255 255 255
57.4149 -7.56715 3.18581  255 255 255
-8.55584 -8.4154 33.1613  255 255 255
-46.3057 -7.02192 -21.4396  255 255 255
56.9232 -9.07594 1.234  255 255 255
57.0346 -9.04114 0.992567  255 255 255
-68.8696 -6.85235 -20.4424  255 255 255
58.958 -9.34711 5.06299  255 255 255
-1.90921 -9.43541 35.0515  255 255 255
58.3655 -9.84578 3.46296  255 255 255
0.348134 -9.81232 35.1951  255 255 255
64.1489 -10.2401 16.9122  255 255 255
-64.5301 -7.79952 -19.2901  255 255 255
57.5794 -10.0396 1.64022  255 255 255
59.4446 -10.5545 5.4716  255 255 255
64.283 -11.4917 16.7581  255 255 255
57.222 -11.367 -0.397159  255 255 255
64.9187 -11.7339 18.7521  255 255 255
60.4638 -11.7619 7.79806  255 255 255
56.8349 -11.8669 -1.53523  255 255 255
48.1058 -12.0463 -21.2219  255 255 255
61.2617 -12.5016 8.67517  255 255 255
61.2617 -12.5016 8.67517  255 255 255
-103.361 -10.0822 -13.7545  255 255 255
-47.2581 -11.0108 -16.7119  255 255 255
-16.7332 -11.6794 28.2282  255 255 255
5.58773 -12.1053 34.439  255 255 255
59.2742 -13.1356 3.50743  255 255 255
64.9025 -13.1291 17.1392  255 255 255
61.4714 -13.3106 8.72215  255 255 255
42.1721 -13.3858 -18.9432  255 255 255
50.8365 -13.8197 -15.3959  255 255 255
53.9306 -13.8691 -9.39841  255 255 255
59.046 -13.839 2.50723  255 255 255
59.046 -13.839 2.50723  255 255 255
11.0746 -12.9182 32.0995  255 255 255
61.6001 -13.962 8.26988  255 255 255
-52.2768 -12.6561 -14.8276  255 255 255
60.111 -14.1208 4.612  255 255 255
-58.2898 -12.6416 -14.1839  255 255 255
-60.0184 -12.9527 -13.7338  255 255 255
-19.0735 -13.1125 25.6693  255 255 255
-50.2057 -13.2902 -13.8376  255 255 255
12.6595 -13.6456 30.4916  255 255 255
59.6232 -14.6729 3.36973  255 255 255
59.6232 -14.6729 3.36973  255 255 255
65.8842 -14.4852 18.5466  255 255 255
65.9252 -14.4878 18.4827  255 255 255
56.4948 -14.7575 -4.27946  255 255 255
56.5142 -14.7575 -4.29456  255 255 255
61.7624 -14.6345 7.99867  255 255 255
61.7597 -14.6268 7.99572  255 255 255
61.7781 -14.625 7.9605  255 255 255
-59.3211 -13.3687 -13.3083  255 255 255
47.142 -15.0075 -18.7225  255 255 255
-60.2912 -13.632 -13.4919  255 255 255
57.0312 -15.1473 -3.09087  255 255 255
56.8932 -15.1553 -2.83106  255 255 255
-64.6034 -13.656 -13.2439  255 255 255
66.1183 -15.0835 18.3055  255 255 255
-57.3747 -14.1006 -12.9105  255 255 255
52.2476 -16.073 -13.9232  255 255 255
-49.8913 -15.1822 -12.0414  255 255 255
56.064 -16.5481 -5.65839  255 255 255
67.3244 -16.1701 20.4828  255 255 255
-50.3371 -15.5801 -12.0062  255 255 255
54.5763 -17.4013 -9.76229  255 255 255
54.3369 -17.3798 -9.271  255 255 255
60.7883 -17.1266 4.26633  255 255 255
62.1295 -17.0896 7.29833  255 255 255
55.9701 -17.3935 -7.06346  255 255 255
-67.5055 -15.9086 -10.4744  255 255 255
59.5285 -17.5895 0.456166  255 255 255
60.9275 -18.3163 3.64166  255 255 255
60.9195 -18.3098 3.63961  255 255 255
60.9416 -18.3023 3.61953  255 255 255
58.4272 -18.529 -2.11223  255 255 255
3.4689 -16.3603 35.31  255 255 255
17.8322 -17.2123 26.0071  255 255 255
11.177 -17.1881 31.4822  255 255 255
-52.6845 -18.283 -8.15288  255 255 255
-52.7041 -18.2902 -8.21112  255 255 255
-15.3311 -17.0319 30.5847  255 255 255
-59.5763 -18.3076 -7.66992  255 255 255
-26.7704 -17.4147 25.6392  255 255 255
-16.8847 -17.5522 29.5886  255 255 255
4.91401 -17.6328 35.2328  255 255 255
-58.4358 -18.8946 -7.00124  255 255 255
-52.3051 -18.8868 -7.35516  255 255 255
61.4041 -20.318 3.68394  255 255 255
61.4799 -20.3121 3.52901  255 255 255
-60.2282 -19.1509 -7.02908  255 255 255
11.7785 -18.9505 31.0136  255 255 255
-48.8005 -20.6393 -5.85952  255 255 255
64.1301 -21.4634 10.4072  255 255 255
-48.1225 -20.6994 -5.70651  255 255 255
-26.3614 -19.0623 27.027  255 255 255
-26.3345 -19.0507 27.189  255 255 255
-1.95515 -18.9275 36.1119  255 255 255
-1.94564 -18.9409 36.0212  255 255 255
60.6545 -22.2214 -1.29179  255 255 255
59.2119 -22.6676 -3.12142  255 255 255
66.182 -22.0602 13.8332  255 255 255
-62.6804 -22.5157 -3.34687  255 255 255
60.4287 -24.6642 -1.70801  255 255 255
-54.6277 -24.6681 -1.00439  255 255 255
12.6488 -22.7504 32.7131  255 255 255
44.7497 -27.1388 -4.98856  255 255 255
64.7002 -26.6832 6.35496  255 255 255
-14.0729 -23.2138 33.9534  255 255 255
-56.9273 -26.3866 -0.10624  255 255 255
60.7815 -28.8502 -3.64661  255 255 255
-54.2919 -26.627 0.793196  255 255 255
66.057 -28.9546 8.9613  255 255 255
66.0291 -28.9512 9.01836  255 255 255
-1.4033 -24.8 36.2134  255 255 255
4.36915 -25.1898 35.6229  255 255 255
0.233177 -25.1104 36.485  255 255 255
-28.1452 -27.2149 17.8304  255 255 255
-7.19859 -25.3519 36.2703  255 255 255
10.8946 -26.0076 33.0767  255 255 255
68.0383 -29.6359 12.1418  255 255 255
1.41053 -25.8253 36.3563  255 255 255
65.3031 -30.5691 8.85734  255 255 255
69.6136 -29.6975 16.7387  255 255 255
62.991 -32.4168 -0.827713  255 255 255
-13.2189 -26.4909 34.6824  255 255 255
-55.3918 -30.4097 5.82881  255 255 255
-13.0625 -27.3082 35.5083  255 255 255
68.5344 -32.1301 12.2846  255 255 255
8.86055 -28.1731 34.6747  255 255 255
-57.7172 -31.7456 7.22483  255 255 255
-15.5581 -28.2921 36.6167  255 255 255
-23.6665 -30.0012 26.2839  255 255 255
-12.8486 -28.8671 37.1773  255 255 255
11.9273 -29.5782 35.5905  255 255 255
-15.6071 -28.8589 37.5353  255 255 255
-15.6053 -28.8642 37.5328  255 255 255
69.4624 -34.368 12.8771  255 255 255
-56.2117 -33.4311 8.72422  255 255 255
10.5455 -29.8693 36.1733  255 255 255
66.2616 -36.1829 4.5123  255 255 255
69.9643 -35.7753 12.9368  255 255 255
-11.2935 -31.0597 36.466  255 255 255
0.995381 -31.2065 38.481  255 255 255
5.88417 -31.5238 38.1499  255 255 255
-0.112471 -32.2364 37.92  255 255 255
10.1843 -35.9394 31.4386  255 255 255
-13.3401 -36.2277 30.8937  255 255 255
-8.12586 -37.4208 32.3622  255 255 255
12.7356 -39.5491 26.5868  255 255 255
15.3032 -40.6601 25.6705  255 255 255
17.5754 -42.2769 25.4546  255 255 255
55.4816 -47.0921 18.1305  255 255 255
21.1012 -46.5897 21.6501  255 255 255
21.0969 -46.5784 21.6394  255 255 255
-7.42931 -46.0833 32.37  255 255 255
28.6713 -50.7541 22.8537  255 255 255
27.0792 -51.4338 23.3424  255 255 255
55.0921 -52.5854 24.73  255 255 255
-35.211 -50.4493 26.8313  255 255 255
51.3151 -54.4856 27.5059  255 255 255
-32.7555 -52.952 29.748  255 255 255
49.8358 -55.987 28.8103  255 255 255
-22.6109 -55.0366 31.4959  255 255 255
-22.6138 -55.0236 31.4871  255 255 255
-28.0761 -55.2798 32.0308  255 255 255
22.0419 -57.0229 30.4419  255 255 255
-19.6037 -56.7785 33.2145  255 255 255
-16.8063 -57.1266 33.5259  255 255 255
-37.8279 -57.3454 34.1421  255 255 255
-0.445782 -58.0953 33.1875  255 255 255
-11.5144 -57.7103 34.1773  255 255 255
-18.7972 -57.842 34.4621  255 255 255
0.637605 -58.7535 33.6879  255 255 255
-8.72487 -58.4398 34.3791  255 255 255
-6.36645 -58.555 34.3145  255 255 255
-13.4147 -58.5827 34.4843  255 255 255
-3.38929 -58.9887 34.6868  255 255 255
51.2996 -60.5347 34.7479  255 255 255
29.2093 -60.6448 35.4795  255 255 255
52.2842 50.3005 -11.2136  255 255 255
-71.0729 54.7514 -16.802  255 255 255
29.8695 74.9907 -77.4939  255 255 255
65.6609 82.4771 -97.2765  255 255 255
66.9801 82.5663 -97.331  255 255 255
17.5748 71.1299 -70.4091  255 255 255
28.6903 73.741 -77.665  255 255 255
-123.389 74.1383 -66.9476  255 255 255
-55.1594 56.2807 -27.168  255 255 255
54.9721 47.0519 -7.41971  255 255 255
54.9583 47.0458 -7.39438  255 255 255
-79.7998 51.6663 -11.6422  255 255 255
-31.3713 60.6801 -42.022  255 255 255
-31.3713 60.6801 -42.022  255 255 255
50.9263 77.4549 -90.1231  255 255 255
-32.9705 60.3869 -42.2908  255 255 255
-32.9618 60.2745 -42.1251  255 255 255
-8.74648 63.3944 -57.4784  255 255 255
22.3739 69.5987 -75.9135  255 255 255
22.3555 69.5676 -75.8236  255 255 255
-62.333 53.186 -25.241  255 255 255
24.6521 69.5132 -78.0963  255 255 255
23.6503 68.9171 -77.8131  255 255 255
23.6503 68.9171 -77.8131  255 255 255
-10.8003 61.885 -57.7635  255 255 255
28.8671 68.1243 -76.8167  255 255 255
27.0496 68.5123 -78.4258  255 255 255
55.1118 43.9563 -8.54175  255 255 255
54.3399 44.3055 -10.086  255 255 255
7.52717 64.8484 -69.0338  255 255 255
12.4967 66.292 -73.1605  255 255 255
-81.2185 48.7509 -14.999  255 255 255
-81.1117 48.5917 -14.547  255 255 255
-82.3116 47.8519 -13.0153  255 255 255
64.776 75.5717 -103.056  255 255 255
55.3463 43.4261 -9.5955  255 255 255
51.1135 34.1815 15.4358  255 255 255
51.1135 34.1815 15.4358  255 255 255
-26.4646 56.3383 -49.9666  255 255 255
50.6021 45.0597 -18.6817  255 255 255
24.3636 65.1401 -81.7377  255 255 255
49.6875 34.0094 12.3259  255 255 255
50.4093 33.0132 13.9353  255 255 255
-10.1551 57.6842 -61.3685  255 255 255
-10.1512 57.701 -61.3768  255 255 255
-83.0037 44.9026 -15.5651  255 255 255
-80.0868 45.143 -18.0245  255 255 255
-11.0341 56.8811 -62.3673  255 255 255
-124.14 64.8412 -74.1529  255 255 255
-63.7378 46.3909 -29.7472  255 255 255
-104.581 53.0028 -46.5579  255 255 255
-77.527 43.6817 -20.3543  255 255 255
-84.1591 42.7778 -17.0818  255 255 255
57.1939 26.7125 24.8668  255 255 255
50.2659 30.6432 11.7684  255 255 255
54.9413 27.87 20.1995  255 255 255
-11.4257 53.5148 -64.8327  255 255 255
50.2888 39.9943 -22.7973  255 255 255
50.2888 39.9943 -22.7973  255 255 255
56.7058 64.2184 -105.285  255 255 255
-45.1936 47.1127 -43.7727  255 255 255
57.4028 25.2139 23.982  255 255 255
-33.135 48.2873 -52.5605  255 255 255
49.8596 39.1323 -24.1676  255 255 255
-47.0214 45.6443 -44.1544  255 255 255
-42.5368 46.0357 -46.9022  255 255 255
-37.2577 46.8252 -50.8101  255 255 255
-66.3502 42.0176 -31.954  255 255 255
-77.4117 40.3797 -24.8118  255 255 255
-84.376 39.1314 -20.3607  255 255 255
-44.8481 44.1291 -47.0338  255 255 255
50.1286 26.4344 8.43725  255 255 255
-53.024 41.4668 -42.9671  255 255 255
53.2037 24.4063 14.4802  255 255 255
-60.9697 39.8912 -38.4231  255 255 255
-42.2632 41.9158 -50.6606  255 255 255
-9.7165 46.7299 -72.0607  255 255 255
0.494922 47.4505 -78.1543  255 255 255
-55.3666 38.7621 -43.661  255 255 255
-129.623 50.208 -81.9575  255 255 255
53.9361 21.3835 14.0546  255 255 255
-121.402 48.3358 -79.9875  255 255 255
-31.6325 40.0002 -60.4987  255 255 255
46.4789 33.1581 -35.6603  255 255 255
54.0595 29.3434 -20.9871  255 255 255
-11.539 40.732 -75.8011  255 255 255
-54.1479 33.8817 -48.5046  255 255 255
-54.1963 33.9195 -48.6895  255 255 255
18.269 38.6916 -78.0846  255 255 255
18.2701 38.5158 -77.5654  255 255 255
-123.952 41.7528 -73.3703  255 255 255
-115.343 41.2528 -72.5098  255 255 255
52.1095 26.9434 -25.8527  255 255 255
-57.39 32.9939 -47.7428  255 255 255
59.2408 15.6167 22.446  255 255 255
-38.9577 34.0868 -60.8494  255 255 255
-57.337 31.7101 -47.4806  255 255 255
55.4859 16.5678 15.2789  255 255 255
51.9999 24.7256 -26.5161  255 255 255
52.0342 24.7376 -26.6103  255 255 255
51.5146 17.9261 6.60618  255 255 255
52.6999 17.2927 9.08147  255 255 255
-31.0766 33.5676 -66.7168  255 255 255
18.5276 33.6297 -72.2105  255 255 255
-4.44358 33.2527 -70.3327  255 255 255
51.6018 16.7391 6.02271  255 255 255
-37.4083 31.5778 -64.6452  255 255 255
-81.6322 26.7218 -33.2897  255 255 255
-81.6322 26.7218 -33.2897  255 255 255
-84.4446 26.0104 -32.9082  255 255 255
-69.6383 26.9695 -42.689  255 255 255
52.7178 21.6667 -27.1084  255 255 255
-65.3976 27.0204 -45.765  255 255 255
-48.5272 28.4199 -59.8369  255 255 255
-13.7966 27.8334 -63.0166  255 255 255
-13.7941 27.8955 -63.3336  255 255 255
58.3322 12.4337 17.9498  255 255 255
-1.64499 27.6332 -64.3915  255 255 255
-80.2324 24.4605 -37.9262  255 255 255
-85.8197 22.5175 -35.1254  255 255 255
-82.5869 22.6243 -37.6189  255 255 255
-84.3421 22.3501 -38.2556  255 255 255
-2.48367 22.9402 -58.1569  255 255 255
48.9799 13.3475 -2.25214  255 255 255
21.3397 21.5794 -58.4422  255 255 255
-110.323 23.5747 -53.5029  255 255 255
17.0056 20.7947 -57.4496  255 255 255
50.3314 11.5081 -0.300946  255 255 255
51.7378 11.0607 2.29178  255 255 255
51.7236 11.0575 2.30917  255 255 255
-113.571 22.9286 -52.1188  255 255 255
49.5619 10.8421 -2.48724  255 255 255
-24.688 18.3361 -51.2512  255 255 255
53.3474 9.12968 6.64603  255 255 255
-84.1136 18.0543 -38.3193  255 255 255
53.4171 8.99827 4.96887  255 255 255
54.166 8.81911 6.45093  255 255 255
55.6321 8.23135 9.99825  255 255 255
51.3822 9.27116 0.159171  255 255 255
49.753 8.99456 -3.44207  255 255 255
49.7629 8.98686 -3.50695  255 255 255
51.9109 8.29376 1.13997  255 255 255
-17.2821 15.1316 -48.7985  255 255 255
47.6599 8.61681 -9.03934  255 255 255
-24.0874 13.351 -42.8211  255 255 255
55.4146 6.04742 7.81077  255 255 255
55.841 5.67628 8.79284  255 255 255
-58.4679 13.9647 -45.2727  255 255 255
-58.3817 13.8994 -45.0082  255 255 255
51.5772 6.65413 -0.600091  255 255 255
50.1701 6.27921 -3.96105  255 255 255
-3.23766 2.70868 21.8108  255 255 255
-54.6527 10.5635 -41.5889  255 255 255
-54.6527 10.5635 -41.5889  255 255 255
51.1723 4.30853 -3.53542  255 255 255
-5.26884 1.70978 23.0271  255 255 255
57.8992 0.568205 9.62496  255 255 255
57.7081 0.438905 8.48245  255 255 255
57.5779 0.408085 8.74981  255 255 255
57.5779 0.408085 8.74981  255 255 255
7.62584 -1.01136 25.7622  255 255 255
54.348 0.49774 1.75053  255 255 255
51.23 0.727172 -5.69283  255 255 255
57.6843 -0.285523 7.25241  255 255 255
58.7112 -0.648043 10.6404  255 255 255
57.0001 -0.419127 6.91605  255 255 255
-8.49499 -1.84177 28.5652  255 255 255
-119.134 5.50158 -33.2397  255 255 255
-119.134 5.50158 -33.2397  255 255 255
58.2588 -1.10063 9.36645  255 255 255
59.1174 -1.22535 11.3828  255 255 255
-40.4149 3.13865 -33.2417  255 255 255
57.2177 -1.19762 6.96357  255 255 255
-48.0482 3.01402 -33.5012  255 255 255
54.7177 -1.43837 1.05204  255 255 255
-41.8138 2.01541 -31.6959  255 255 255
57.3724 -1.92587 6.43552  255 255 255
53.6392 -1.52411 -1.32961  255 255 255
53.6392 -1.52411 -1.32961  255 255 255
61.0827 -2.79363 15.6637  255 255 255
57.7319 -2.46703 7.47758  255 255 255
60.2876 -3.08236 12.7066  255 255 255
60.6847 -3.18324 13.4711  255 255 255
-15.3541 -3.27994 24.6831  255 255 255
62.4321 -3.57794 18.0658  255 255 255
62.9692 -3.88202 18.5402  255 255 255
-48.2248 0.362782 -29.4606  255 255 255
-9.57711 -3.97667 29.6792  255 255 255
59.2757 -3.45147 10.1051  255 255 255
53.945 -2.77363 -1.63535  255 255 255
60.1945 -3.59771 11.9696  255 255 255
61.1773 -3.89935 14.2006  255 255 255
54.9168 -3.34794 0.374674  255 255 255
54.9154 -3.35589 0.384515  255 255 255
56.0285 -3.56313 1.99621  255 255 255
59.8058 -4.1322 10.9523  255 255 255
58.8976 -4.08973 8.74704  255 255 255
60.4149 -4.37196 12.2078  255 255 255
-19.885 -3.71806 13.608  255 255 255
59.3693 -4.65146 9.37963  255 255 255
-8.87679 -5.50694 31.1571  255 255 255
60.0877 -5.3712 10.4907  255 255 255
62.3561 -5.97795 15.2962  255 255 255
62.3561 -5.97795 15.2962  255 255 255
59.8977 -5.9536 10.0316  255 255 255
-47.449 -2.99776 -25.9948  255 255 255
61.5575 -6.34815 13.387  255 255 255
-110.228 -2.74404 -22.1353  255 255 255
-17.2615 -6.45009 25.227  255 255 255
61.4532 -7.23904 12.3229  255 255 255
53.5145 -6.85933 -5.00743  255 255 255
62.3701 -7.43903 14.3359  255 255 255
60.333 -7.67297 9.6515  255 255 255
-46.2305 -5.41068 -24.0985  255 255 255
5.10414 -8.14601 33.3321  255 255 255
61.956 -8.09104 13.2343  255 255 255
64.92 -8.86302 19.55  255 255 255
-10.7748 -8.37393 32.03  255 255 255
59.1741 -8.59499 6.2136  255 255 255
61.81 -8.94407 12.293  255 255 255
62.7935 -9.1289 14.1868  255 255 255
57.7643 -9.04568 2.95644  255 255 255
4.28024 -9.36973 34.1665  255 255 255
-11.5019 -9.22279 31.594  255 255 255
-0.208706 -9.48135 35.0598  255 255 255
-0.198211 -9.45414 34.9828  255 255 255
54.0047 -9.33388 -6.02898  255 255 255
63.6935 -10.1274 16.2402  255 255 255
5.43418 -9.9774 33.8034  255 255 255
57.0525 -10.2052 0.234094  255 255 255
66.1709 -10.6502 21.513  255 255 255
48.7883 -9.8392 -18.3468  255 255 255
48.6255 -9.89393 -17.9576  255 255 255
51.296 -9.93149 -13.3568  255 255 255
58.6366 -10.4769 4.84304  255 255 255
47.7313 -10.3551 -21.4273  255 255 255
47.636 -10.3623 -21.1395  255 255 255
-21.8008 -9.97588 20.9854  255 255 255
-8.12412 -10.5279 34.0074  255 255 255
59.5904 -11.3654 5.44663  255 255 255
-28.7879 -10.3889 17.2175  255 255 255
59.0829 -11.9025 4.1338  255 255 255
57.7068 -12.0913 0.578105  255 255 255
57.7017 -12.0868 0.577634  255 255 255
-22.4182 -11.1343 22.4617  255 255 255
-21.2018 -11.2486 22.4074  255 255 255
-4.93274 -11.4631 35.2584  255 255 255
6.20523 -11.8016 33.9637  255 255 255
6.19288 -11.8068 33.9959  255 255 255
-62.7716 -10.6636 -16.7735  255 255 255
60.0265 -12.9622 5.23021  255 255 255
-27.9006 -11.836 18.9974  255 255 255
58.5624 -13.0904 1.72459  255 255 255
66.6119 -13.2492 20.6636  255 255 255
-18.3573 -12.1151 26.4636  255 255 255
64.2188 -13.3568 15.0952  255 255 255
64.2813 -13.3576 14.9323  255 255 255
-25.8753 -12.2283 18.9564  255 255 255
60.7636 -14.04 6.30625  255 255 255
59.1253 -15.0988 2.12193  255 255 255
-21.6549 -13.6288 25.1142  255 255 255
-67.2341 -14.0201 -12.2149  255 255 255
61.1534 -15.5356 5.97885  255 255 255
-54.4009 -14.3727 -12.6301  255 255 255
-54.4017 -14.3793 -12.6336  255 255 255
58.1008 -15.702 -1.12983  255 255 255
56.8293 -16.1477 -4.66829  255 255 255
59.9621 -16.0178 3.02993  255 255 255
-53.2804 -14.9891 -12.0218  255 255 255
-54.023 -15.1799 -11.7884  255 255 255
58.8845 -16.7472 -0.0415592  255 255 255
59.7293 -16.7591 1.72689  255 255 255
-18.8194 -15.3943 27.45  255 255 255
-61.8326 -15.9099 -10.6033  255 255 255
60.3152 -17.589 2.8043  255 255 255
60.3534 -17.582 2.72095  255 255 255
-56.3116 -16.6152 -9.85632  255 255 255
-59.9452 -16.693 -9.58325  255 255 255
59.0724 -18.2222 -0.468682  255 255 255
59.0614 -18.2387 -0.415649  255 255 255
-18.0581 -16.3295 27.9663  255 255 255
-14.5449 -16.3792 31.1522  255 255 255
67.6977 -18.1921 18.6284  255 255 255
-9.18114 -16.5807 34.4174  255 255 255
-62.4484 -17.8487 -8.63921  255 255 255
59.8439 -19.1562 0.387752  255 255 255
66.1288 -18.7295 16.1994  255 255 255
60.2311 -19.2426 1.41903  255 255 255
60.1802 -19.2621 1.46564  255 255 255
58.665 -19.8982 -2.51221  255 255 255
0.212453 -17.4554 36.117  255 255 255
59.9657 -20.5637 0.244018  255 255 255
59.9363 -20.5778 0.275951  255 255 255
-64.1027 -19.1459 -6.88712  255 255 255
-61.6618 -19.2441 -6.83384  255 255 255
2.63673 -18.3482 35.1638  255 255 255
1.69291 -18.4256 35.6491  255 255 255
59.0435 -21.3635 -2.69301  255 255 255
65.5839 -21.3899 12.339  255 255 255
65.1813 -21.3407 12.9863  255 255 255
-56.2601 -20.5907 -5.53716  255 255 255
3.12069 -19.1205 35.4007  255 255 255
3.12462 -19.1059 35.4371  255 255 255
61.4774 -22.3521 1.90606  255 255 255
60.0937 -22.6843 -1.2188  255 255 255
67.6733 -21.5524 18.1616  255 255 255
66.3282 -21.8621 15.1922  255 255 255
-57.1251 -21.9569 -4.20568  255 255 255
-11.5483 -20.0474 32.9196  255 255 255
-11.1108 -20.5289 33.0959  255 255 255
-55.2627 -23.0573 -2.3747  255 255 255
3.83446 -21.0056 34.6962  255 255 255
-4.61355 -20.8829 35.273  255 255 255
-17.5484 -21.4832 32.014  255 255 255
-13.6112 -21.6493 34.1027  255 255 255
64.2987 -25.5066 5.16017  255 255 255
63.1842 -25.3137 6.9784  255 255 255
61.3809 -26.3506 -0.465102  255 255 255
67.599 -25.2895 14.9414  255 255 255
7.9151 -22.9313 33.1947  255 255 255
7.00258 -23.2584 33.2021  255 255 255
5.01231 -23.3506 33.8796  255 255 255
65.1234 -27.1045 6.88054  255 255 255
3.47666 -23.4281 34.4939  255 255 255
-20.3277 -23.6335 32.0328  255 255 255
-2.76167 -24.8413 36.6079  255 255 255
11.5215 -26.1378 32.6543  255 255 255
68.6894 -29.6006 14.646  255 255 255
65.0303 -31.0541 4.82042  255 255 255
-55.4061 -29.895 4.40731  255 255 255
-57.1356 -32.3707 7.74277  255 255 255
-53.017 -33.7319 8.9948  255 255 255
-20.0542 -31.303 28.7321  255 255 255
-5.9948 -30.2366 38.12  255 255 255
-12.7282 -30.5824 36.2627  255 255 255
-0.826071 -30.5316 38.2834  255 255 255
-21.1905 -32.1068 27.1667  255 255 255
-1.77326 -30.6847 38.265  255 255 255
-54.3897 -35.0906 11.2573  255 255 255
-4.08147 -31.2278 38.9476  255 255 255
-5.46755 -31.3663 39.2412  255 255 255
-4.42232 -32.0204 39.9197  255 255 255
-9.44886 -33.2595 35.3756  255 255 255
-4.77831 -32.5254 39.9494  255 255 255
-20.5479 -35.2653 25.977  255 255 255
-9.16295 -34.0382 34.7423  255 255 255
-92.1502 -39.4507 17.8624  255 255 255
50.1893 -42.7242 11.9619  255 255 255
62.8717 -44.5959 14.738  255 255 255
59.2464 -45.4857 15.4034  255 255 255
0.667813 -40.4099 31.7917  255 255 255
57.3404 -46.6967 17.6657  255 255 255
54.8833 -47.9538 18.035  255 255 255
12.5339 -45.2541 28.7622  255 255 255
49.5312 -49.2261 20.3376  255 255 255
-30.3612 -50.5168 27.2496  255 255 255
-26.6805 -51.9391 28.3768  255 255 255
51.4352 -55.4901 27.787  255 255 255
36.2995 -55.4146 27.3375  255 255 255
27.6533 -55.0142 28.8687  255 255 255
-1.70127 -55.7606 31.3999  255 255 255
-2.45177 -56.5272 31.4542  255 255 255
-20.2084 -57.0343 33.2758  255 255 255
24.684 -58.2825 32.4969  255 255 255
-11.4367 -57.249 33.1247  255 255 255
-38.7245 -56.9253 34.8426  255 255 255
46.2161 -59.0172 32.795  255 255 255
26.2731 -58.8243 32.3514  255 255 255
-8.2391 -57.9826 34.0477  255 255 255
-7.30039 -58.1698 33.8549  255 255 255
-12.2794 -58.0407 34.1677  255 255 255
-6.05835 -58.1648 34.2591  255 255 255
-2.59601 -58.7985 34.3135  255 255 255
33.2402 -59.9589 34.1473  255 255 255
-9.75494 -58.6396 34.794  255 255 255
-9.10486 -59.2865 35.2688  255 255 255
-31.9802 62.5934 -40.5725  255 255 255
-1.08556 68.9757 -59.4457  255 255 255
-72.266 54.4056 -16.1591  255 255 255
32.0533 75.544 -79.5373  255 255 255
-73.4879 53.9096 -15.289  255 255 255
-66.808 55.1051 -19.6982  255 255 255
-66.8011 55.0732 -19.5631  255 255 255
-44.1562 59.361 -33.8305  255 255 255
48.6373 52.5184 -19.7881  255 255 255
-55.7885 56.7821 -26.3165  255 255 255
-55.7937 56.912 -26.5759  255 255 255
-10.5842 65.6492 -54.5356  255 255 255
47.9326 76.7342 -88.5715  255 255 255
53.9176 47.4281 -9.74157  255 255 255
7.89648 68.2619 -65.8898  255 255 255
48.7475 50.6727 -19.3658  255 255 255
50.3772 49.3587 -16.0427  255 255 255
-72.6799 52.4177 -17.6621  255 255 255
18.7436 70.0729 -73.247  255 255 255
38.3897 73.601 -83.6415  255 255 255
-7.47166 64.0361 -58.8936  255 255 255
52.6317 46.5486 -12.5647  255 255 255
54.423 45.093 -9.46178  255 255 255
-122.459 70.5087 -66.6461  255 255 255
58.9634 75.4992 -98.0457  255 255 255
22.4975 67.9921 -77.8179  255 255 255
-118.258 67.0216 -61.8533  255 255 255
43.7351 71.0574 -88.1701  255 255 255
50.6719 34.7752 15.8931  255 255 255
22.3294 67.0455 -78.4902  255 255 255
-2.48796 60.4613 -65.6336  255 255 255
-109.177 57.6151 -51.1425  255 255 255
-109.177 57.6151 -51.1425  255 255 255
-33.0179 52.5622 -47.9753  255 255 255
48.2104 43.0748 -24.8291  255 255 255
48.2547 43.1294 -24.9535  255 255 255
49.6811 31.6792 10.7989  255 255 255
49.603 40.8021 -23.8215  255 255 255
55.15 37.5306 -14.3943  255 255 255
51.4228 38.6761 -21.4864  255 255 255
-84.0928 40.8597 -18.4634  255 255 255
52.47 28.0214 14.7917  255 255 255
-24.444 49.1806 -57.6878  255 255 255
-104.822 49.5136 -49.7209  255 255 255
-80.2312 40.3555 -22.3628  255 255 255
60.124 22.9379 28.9082  255 255 255
60.7498 22.0946 29.9016  255 255 255
54.9366 24.4349 17.95  255 255 255
52.9142 23.855 13.1982  255 255 255
52.8645 23.8293 13.2844  255 255 255
54.4912 23.014 16.2174  255 255 255
54.4827 23.0196 16.2214  255 255 255
-49.7101 39.0619 -46.4165  255 255 255
54.0777 22.2443 15.1208  255 255 255
51.0471 23.3781 9.41916  255 255 255
50.3183 23.6916 7.56338  255 255 255
50.3183 23.6916 7.56338  255 255 255
52.6476 21.8214 11.1104  255 255 255
58.7625 18.7834 23.0528  255 255 255
-77.9699 33.1101 -31.6547  255 255 255
58.3608 17.8332 21.685  255 255 255
53.5224 19.3897 12.2083  255 255 255
-81.5739 31.0569 -30.55  255 255 255
52.9682 25.9076 -24.6549  255 255 255
58.5946 15.9952 21.0875  255 255 255
61.5066 14.7619 27.1756  255 255 255
61.5066 14.7619 27.1756  255 255 255
51.5929 25.9544 -27.6993  255 255 255
53.0712 17.9251 10.3071  255 255 255
53.2071 17.9785 10.148  255 255 255
-6.28375 35.6674 -72.7633  255 255 255
60.317 14.2895 24.0104  255 255 255
49.7911 18.1709 2.48218  255 255 255
-5.93679 32.7097 -69.1247  255 255 255
47.0481 25.6911 -38.3295  255 255 255
52.8784 16.0278 8.71766  255 255 255
56.8674 14.1035 16.2071  255 255 255
52.7832 14.9613 7.69369  255 255 255
52.8766 14.9914 7.61797  255 255 255
49.4995 15.7875 0.762126  255 255 255
53.2612 14.0317 9.38896  255 255 255
50.7388 14.928 1.18423  255 255 255
-64.3029 25.3468 -47.856  255 255 255
55.6192 12.5026 12.3419  255 255 255
-32.0112 25.182 -57.0486  255 255 255
-4.35648 21.8622 -57.7842  255 255 255
50.9581 11.9536 1.25957  255 255 255
53.0696 11.1113 5.72052  255 255 255
-70.6508 21.5123 -50.0852  255 255 255
-68.2798 21.1209 -50.8862  255 255 255
-21.4773 16.7327 -49.8779  255 255 255
57.1109 6.85011 12.3319  255 255 255
-22.2806 14.7705 -45.428  255 255 255
52.6967 7.51357 2.07186  255 255 255
57.3178 5.60856 11.4939  255 255 255
60.1677 5.14909 15.8354  255 255 255
56.7373 4.34232 9.33734  255 255 255
-83.901 12.2809 -41.3841  255 255 255
61.8769 2.9676 18.1566  255 255 255
-4.19524 2.17598 22.3254  255 255 255
-49.2212 8.72895 -37.8829  255 255 255
-46.3064 8.47212 -38.1845  255 255 255
56.9147 0.674315 7.47647  255 255 255
61.9115 -2.06756 18.8467  255 255 255
56.7877 -1.25144 5.9733  255 255 255
56.7877 -1.25144 5.9733  255 255 255
60.754 -2.29767 14.7315  255 255 255
63.0089 -3.1437 19.3383  255 255 255
58.6876 -2.56621 9.11415  255 255 255
59.4104 -2.58933 10.903  255 255 255
61.8096 -4.66141 15.0953  255 255 255
65.718 -5.49545 23.2345  255 255 255
63.995 -5.2729 19.7833  255 255 255
-71.4555 -1.32753 -25.9437  255 255 255
49.2546 -4.70839 -12.3412  255 255 255
60.6605 -6.39229 11.3691  255 255 255
64.5882 -6.72472 18.8954  255 255 255
64.5882 -6.72472 18.8954  255 255 255
58.6876 -6.78581 6.52856  255 255 255
61.7359 -7.34763 13.0913  255 255 255
61.7359 -7.34763 13.0913  255 255 255
63.48 -7.88148 16.7037  255 255 255
65.8331 -8.86998 22.2039  255 255 255
-64.6172 -6.68699 -21.4593  255 255 255
-58.6554 -7.32269 -20.3971  255 255 255
50.1057 -9.31862 -15.529  255 255 255
50.1697 -9.31146 -15.6385  255 255 255
-67.9549 -7.53512 -19.9452  255 255 255
-67.7701 -7.54576 -19.2632  255 255 255
-52.4873 -7.92997 -20.721  255 255 255
47.6867 -9.37288 -20.8836  255 255 255
-61.6091 -8.28682 -19.0764  255 255 255
-67.9023 -8.49109 -18.7692  255 255 255
-16.6414 -10.5642 28.1372  255 255 255
-113.992 -9.0376 -14.2783  255 255 255
56.1213 -12.9973 -3.90034  255 255 255
-104.807 -12.2971 -11.3918  255 255 255
-13.3217 -14.124 32.1437  255 255 255
-13.628 -14.8982 31.7781  255 255 255
-13.6226 -14.8985 31.8226  255 255 255
4.58157 -15.1656 35.1379  255 255 255
65.0881 -16.6591 15.0481  255 255 255
2.5771 -15.3635 35.524  255 255 255
-49.8967 -16.4281 -10.9328  255 255 255
66.4264 -17.3088 18.071  255 255 255
66.4264 -17.3088 18.071  255 255 255
-51.3037 -16.911 -9.70953  255 255 255
-24.5309 -16.1301 24.1025  255 255 255
62.1201 -18.073 7.11443  255 255 255
66.1898 -18.0679 17.0763  255 255 255
66.1898 -18.0679 17.0763  255 255 255
62.7751 -18.6264 7.66117  255 255 255
60.6818 -19.0702 2.53023  255 255 255
-63.7563 -18.412 -7.30779  255 255 255
15.4033 -18.5205 28.0572  255 255 255
-55.2921 -20.7071 -5.60794  255 255 255
-10.2481 -19.0402 33.5068  255 255 255
-56.9893 -21.3294 -5.24224  255 255 255
15.1423 -20.6443 29.8145  255 255 255
61.0545 -23.6299 -0.0428541  255 255 255
8.29783 -22.1458 33.3194  255 255 255
9.92533 -22.9126 32.6104  255 255 255
15.6896 -23.2374 30.0748  255 255 255
1.36747 -22.9282 34.7105  255 255 255
67.0998 -26.7459 12.8365  255 255 255
-4.51344 -23.4867 35.1046  255 255 255
5.41116 -24.053 35.0096  255 255 255
65.5781 -27.9942 8.20158  255 255 255
-13.9426 -24.8433 33.6814  255 255 255
-30.0161 -27.0347 15.9655  255 255 255
10.9781 -26.5039 32.7847  255 255 255
65.4944 -31.7997 5.89138  255 255 255
-56.3488 -30.412 5.41606  255 255 255
12.0685 -27.6377 33.6564  255 255 255
67.3545 -32.1474 12.5365  255 255 255
4.1139 -27.6708 36.0577  255 255 255
-3.88355 -30.5839 38.7027  255 255 255
-0.0378117 -31.0463 38.6064  255 255 255
-0.016817 -31.0404 38.5406  255 255 255
-7.64465 -36.374 33.2843  255 255 255
-11.4214 -36.9444 31.2852  255 255 255
-7.78249 -38.4587 31.7558  255 255 255
-3.51209 -38.4493 33.1272  255 255 255
-2.35959 -39.2764 32.072  255 255 255
44.3177 -47.0632 16.9084  255 255 255
58.0317 -47.7022 18.4475  255 255 255
59.3127 -47.8568 18.6477  255 255 255
-35.9912 -50.419 26.7322  255 255 255
56.2825 -52.8659 25.5613  255 255 255
27.717 -52.3823 24.5319  255 255 255
26.5669 -53.336 25.773  255 255 255
25.4251 -53.7983 26.249  255 255 255
52.2062 -54.9283 27.4039  255 255 255
-24.6223 -53.3022 29.7329  255 255 255
32.1945 -57.0028 29.5005  255 255 255
-77.2499 -57.0601 35.2661  255 255 255
25.9288 -59.5079 33.3762  255 255 255
48.0337 -60.721 34.2311  255 255 255
-71.4856 52.7219 -18.4175  255 255 255
-71.4577 52.7066 -18.2431  255 255 255
35.4342 73.0845 -83.3486  255 255 255
51.2592 48.1097 -14.4823  255 255 255
53.2609 46.5349 -11.2559  255 255 255
53.5896 74.9907 -94.5397  255 255 255
53.5629 31.5212 21.1429  255 255 255
47.2751 68.947 -96.7629  255 255 255
53.9518 29.9692 19.4722  255 255 255
-37.0654 50.6656 -44.0568  255 255 255
5.19949 58.7072 -73.4571  255 255 255
56.0179 27.833 23.5343  255 255 255
55.6138 27.8073 21.9951  255 255 255
58.7373 25.8947 28.5474  255 255 255
-8.19635 54.0918 -62.6367  255 255 255
49.5593 30.2863 10.2685  255 255 255
56.8279 26.1626 23.47  255 255 255
55.2646 26.8998 20.5145  255 255 255
55.2646 26.8998 20.5145  255 255 255
53.9912 26.006 17.0519  255 255 255
55.4909 24.2487 19.0344  255 255 255
51.67 25.3063 11.6564  255 255 255
51.5391 24.7177 10.1195  255 255 255
52.4788 31.6852 -21.147  255 255 255
54.4649 29.6867 -19.4521  255 255 255
-96.8901 38.0575 -43.2058  255 255 255
-125.292 45.0826 -76.8995  255 255 255
59.7914 17.0984 24.651  255 255 255
-125.378 43.2168 -74.3284  255 255 255
-125.378 43.2168 -74.3284  255 255 255
-83.938 31.0065 -26.9005  255 255 255
55.4707 18.3493 15.3129  255 255 255
59.7968 15.9474 23.9363  255 255 255
61.2741 14.1627 26.2141  255 255 255
57.9703 14.4262 20.0553  255 255 255
54.1874 15.7831 11.1698  255 255 255
51.0664 16.0787 4.71209  255 255 255
-73.4496 27.1478 -43.6392  255 255 255
-40.875 28.9832 -60.7549  255 255 255
-40.875 28.9832 -60.7549  255 255 255
51.4648 14.3446 4.4224  255 255 255
52.193 14.0322 5.75067  255 255 255
48.1249 15.5735 -2.37469  255 255 255
52.895 12.6987 6.32284  255 255 255
57.0626 10.8273 14.0931  255 255 255
-81.8782 20.1431 -38.7477  255 255 255
-3.79916 20.0128 -54.5526  255 255 255
51.9881 4.1093 -0.927597  255 255 255
51.9635 4.10696 -0.878141  255 255 255
51.343 4.31171 -3.79469  255 255 255
63.4055 1.28327 22.8651  255 255 255
57.3095 1.61016 8.32423  255 255 255
57.5337 1.4253 10.9291  255 255 255
-46.4836 6.77273 -35.8705  255 255 255
58.269 0.735637 11.4541  255 255 255
64.732 -2.79125 22.8144  255 255 255
55.9049 -2.00552 3.29045  255 255 255
63.9055 -3.29047 21.0608  255 255 255
57.5674 -3.74636 5.40563  255 255 255
62.746 -6.14262 16.7564  255 255 255
-12.5901 -6.6518 29.7174  255 255 255
-12.5907 -6.65269 29.7169  255 255 255
64.4563 -7.36639 19.8512  255 255 255
65.3593 -8.31155 20.9737  255 255 255
-59.546 -6.33324 -21.8443  255 255 255
65.7917 -10.1052 20.4862  255 255 255
58.1969 -10.3929 2.04253  255 255 255
58.2183 -10.345 1.94963  255 255 255
64.6375 -10.6986 17.7846  255 255 255
56.1134 -11.0066 -2.38664  255 255 255
-53.616 -12.3159 -17.1437  255 255 255
-26.8099 -12.8544 19.8736  255 255 255
63.4556 -14.5116 13.0711  255 255 255
-60.408 -13.9883 -13.0164  255 255 255
-52.3391 -14.4642 -11.8188  255 255 255
-60.0512 -15.4805 -10.9689  255 255 255
4.57582 -15.1651 35.1487  255 255 255
66.8127 -16.8 19.128  255 255 255
61.0858 -20.4723 1.42416  255 255 255
60.9922 -20.4162 1.55481  255 255 255
60.1219 -21.7879 -0.275132  255 255 255
62.6523 -22.0014 5.8781  255 255 255
62.873 -21.9842 5.68219  255 255 255
-61.4243 -21.022 -5.07376  255 255 255
-55.4194 -22.0941 -4.11052  255 255 255
-57.3401 -22.9752 -2.94485  255 255 255
6.29409 -21.4629 33.824  255 255 255
-16.4217 -21.7073 32.9545  255 255 255
-57.8142 -24.7838 -0.400382  255 255 255
-15.1761 -22.5049 33.7468  255 255 255
-59.4939 -25.211 0.00388798  255 255 255
64.0034 -26.9035 4.85345  255 255 255
63.375 -27.5601 2.6662  255 255 255
2.42156 -23.7355 34.5259  255 255 255
67.8408 -27.3198 13.2427  255 255 255
-16.1171 -24.6914 32.4091  255 255 255
-19.3475 -25.2593 33.8809  255 255 255
-58.6202 -29.737 4.41469  255 255 255
-1.71264 -26.2898 36.7027  255 255 255
-1.71264 -26.2898 36.7027  255 255 255
40.0104 -31.7867 -0.19808  255 255 255
69.0676 -33.7149 13.7364  255 255 255
0.446664 -30.3353 37.6425  255 255 255
2.89614 -31.0537 37.6987  255 255 255
14.1661 -33.5265 30.9057  255 255 255
-18.3128 -36.2629 27.6197  255 255 255
14.3199 -37.1067 27.3715  255 255 255
17.2484 -39.4008 24.5262  255 255 255
-13.8354 -38.1121 29.1501  255 255 255
-15.2231 -41.5734 26.4738  255 255 255
54.0828 -47.0704 17.0782  255 255 255
56.8797 -47.3949 18.4592  255 255 255
4.55499 -43.4756 29.1023  255 255 255
30.5891 -51.5558 23.068  255 255 255
26.0619 -52.8701 25.3352  255 255 255
27.8211 -52.5537 26.2613  255 255 255
34.8341 -53.5033 25.4931  255 255 255
35.8676 -53.6818 26.0513  255 255 255
60.4353 -54.6354 27.2842  255 255 255
60.4353 -54.6354 27.2842  255 255 255
52.9219 -54.9072 28.157  255 255 255
-28.0064 -52.6345 29.8082  255 255 255
-24.2033 -53.689 29.53  255 255 255
-24.2228 -55.7747 32.2496  255 255 255
50.8287 -59.9824 30.9611  255 255 255
-11.1178 -58.4077 33.7433  255 255 255
-11.1178 -58.4077 33.7433  255 255 255
22.1026 -59.597 33.3237  255 255 255
47.0862 -60.8539 34.3472  255 255 255
55.5133 29.6975 24.3455  255 255 255
57.698 26.0184 25.5927  255 255 255
55.2077 35.0079 -14.9911  255 255 255
-77.6113 38.1015 -27.0112  255 255 255
50.511 25.4852 9.26025  255 255 255
-84.1372 35.8268 -22.9317  255 255 255
54.887 30.8332 -18.5483  255 255 255
58.3931 20.0642 23.6806  255 255 255
-78.4084 35.0225 -28.5431  255 255 255
51.812 22.8282 10.4276  255 255 255
51.774 22.819 10.451  255 255 255
-72.2357 31.9537 -35.3177  255 255 255
48.4141 16.8197 -0.389037  255 255 255
59.5767 11.5818 19.8278  255 255 255
54.3923 13.0287 9.89346  255 255 255
53.5315 11.6686 7.25274  255 255 255
55.2416 9.45619 9.76519  255 255 255
-23.5876 16.476 -49.0989  255 255 255
-86.0529 16.3253 -41.658  255 255 255
53.4438 7.50793 4.30735  255 255 255
53.4301 7.4956 4.33533  255 255 255
47.1631 8.82986 -8.6883  255 255 255
60.196 3.79084 15.7158  255 255 255
-35.5186 8.4001 -39.0973  255 255 255
60.2457 2.12467 12.8706  255 255 255
-45.245 7.26594 -38.1618  255 255 255
52.8703 2.11252 -0.682504  255 255 255
59.5633 0.862799 12.4418  255 255 255
62.7471 -1.86595 19.6375  255 255 255
59.8972 -4.7338 10.6897  255 255 255
-7.37586 -7.91074 33.6699  255 255 255
53.2856 -11.0168 -9.17001  255 255 255
-10.4614 -11.301 33.1956  255 255 255
63.7118 -12.1562 14.8692  255 255 255
-107.379 -9.94516 -13.9357  255 255 255
56.7604 -12.514 -2.60478  255 255 255
-50.3321 -13.9732 -12.639  255 255 255
-17.4567 -14.8508 28.1017  255 255 255
-17.4567 -14.8508 28.1017  255 255 255
-52.5581 -16.1556 -10.9967  255 255 255
11.7868 -20.4012 30.4641  255 255 255
-55.9131 -23.5901 -3.87876  255 255 255
-24.0596 -21.8741 30.3447  255 255 255
-57.3653 -26.2794 0.195964  255 255 255
15.5164 -29.5769 34.9351  255 255 255
5.56992 -30.9235 38.0914  255 255 255
-2.72738 -31.0716 38.6314  255 255 255
-40.7883 -37.0789 12.3805  255 255 255
-12.2611 -33.3861 33.87  255 255 255
-10.0685 -35.5931 32.9451  255 255 255
-10.0911 -35.5018 33.2843  255 255 255
16.257 -39.7722 25.0682  255 255 255
-16.4008 -41.1817 27.8523  255 255 255
58.2291 -46.025 16.9156  255 255 255
-15.0309 -42.9176 28.1172  255 255 255
63.3427 -51.4728 23.2375  255 255 255
-25.2374 -53.8119 30.2559  255 255 255
-14.9258 -58.1214 35.5593  255 255 255
-14.9258 -58.1214 35.5593  255 255 255
-20.3888 -58.8552 35.5243  255 255 255
-31.0505 61.6458 -42.1539  255 255 255
-31.0505 61.6458 -42.1539  255 255 255
10.409 68.3581 -69.5498  255 255 255
61.651 78.2249 -97.7421  255 255 255
50.3615 35.5185 15.167  255 255 255
6.06774 60.5969 -67.9011  255 255 255
1.19881 60.1999 -67.6194  255 255 255
55.3096 29.1892 22.3665  255 255 255
59.0991 20.7061 25.4138  255 255 255
51.4477 30.4001 -24.57  255 255 255
51.4448 25.6646 -28.9129  255 255 255
61.5811 -6.05998 13.8424  255 255 255
55.1657 -6.60111 -1.54847  255 255 255
64.7705 -9.79432 18.9266  255 255 255
-14.4619 -9.78385 29.7722  255 255 255
-17.2443 -11.1866 27.4975  255 255 255
-14.9644 -13.6694 30.5645  255 255 255
12.418 -16.8528 31.0572  255 255 255
5.83338 -20.4894 33.4156  255 255 255
-15.4956 -31.0732 36.1894  255 255 255
10.9134 -35.9232 31.1858  255 255 255
46.5507 -41.0094 9.78551  255 255 255
-3.38884 -47.8171 25.7398  255 255 255
45.0471 -52.3979 23.821  255 255 255
-20.5758 -55.9817 33.2239  255 255 255
43.7156 71.6064 -90.9317  255 255 255
11.761 63.2775 -71.5734  255 255 255
56.7224 27.0904 23.5755  255 255 255
54.8437 21.0513 15.758  255 255 255
-45.4732 30.6037 -60.2358  255 255 255
55.4341 -4.32257 -0.544282  255 255 255
62.9063 -10.1736 14.6599  255 255 255
-9.46023 -14.5461 34.9342  255 255 255
-14.7981 -28.2604 36.349  255 255 255
-4.75414 -31.1066 39.9637  255 255 255
-14.1256 -32.0562 35.994  255 255 255
-6.12437 -32.3421 39.1043  255 255 255
-7.8814 -36.4068 33.3198  255 255 255
-8.45528 -41.8247 29.0216  255 255 255
-5.38616 -43.7822 28.5706  255 255 255
-4.15505 -45.3333 28.968  255 255 255
-31.127 -52.7973 29.6258  255 255 255
-6.43741 58.2365 -63.133  255 255 255
-6.18236 58.4062 -64.3719  255 255 255
59.0036 -3.50516 10.0604  255 255 255
62.0105 -4.25257 16.725  255 255 255
57.5928 -5.62646 4.35137  255 255 255
62.8146 -7.70538 16.4478  255 255 255
62.7984 -7.70095 16.4132  255 255 255
6.24805 -15.8379 34.4896  255 255 255
-18.2139 -23.841 33.2577  255 255 255
-9.15932 -28.0831 34.2032  255 255 255
14.6991 68.4963 -71.459  255 255 255
-1.75524 63.2159 -63.4837  255 255 255
-1.86977 62.9704 -62.7631  255 255 255
3.43542 62.6351 -70.6094  255 255 255
3.44013 62.4315 -70.4749  255 255 255
36.9389 65.6182 -91.0166  255 255 255
54.4559 29.8513 19.394  255 255 255
60.3295 -8.97527 8.76609  255 255 255
6.55323 -18.604 34.6932  255 255 255
-3.85348 -24.3622 35.6561  255 255 255
-43.7338 45.4655 -45.2998  255 255 255
-43.5779 45.2051 -44.59  255 255 255
61.7785 3.04856 15.2852  255 255 255
59.525 -6.7482 8.55903  255 255 255
-28.5323 59.4192 -45.9131  255 255 255
1.16357 70.8585 -58.9362  255 255 255
16.1924 76.7564 -65.7875  255 255 255
-65.3476 45.6358 -29.6617  255 255 255
-65.2922 45.592 -29.5036  255 255 255
-59.4934 47.8589 -32.4558  255 255 255
15.8526 76.341 -65.6895  255 255 255
2.16784 70.9655 -59.6321  255 255 255
-51.8731 50.3428 -35.7941  255 255 255
-51.7797 50.1849 -35.4241  255 255 255
-51.8006 50.2093 -35.4466  255 255 255
13.7179 75.234 -65.072  255 255 255
14.8086 75.4095 -64.9989  255 255 255
14.869 75.5224 -65.3599  255 255 255
-28.6309 58.7895 -46.511  255 255 255
-28.6325 58.7516 -46.2543  255 255 255
-28.6362 58.7728 -46.4939  255 255 255
14.3709 75.2953 -65.3028  255 255 255
14.3646 75.2804 -65.2524  255 255 255
-66.609 44.6543 -29.5813  255 255 255
-65.5687 44.6357 -29.9388  255 255 255
28.2563 79.5461 -72.447  255 255 255
-76.5829 40.4859 -26.7178  255 255 255
-58.0051 46.4655 -34.4778  255 255 255
-58.0051 46.4655 -34.4778  255 255 255
-66.3831 43.0332 -31.0931  255 255 255
-33.3933 55.1742 -46.1087  255 255 255
-78.2608 38.6336 -26.0631  255 255 255
-78.1646 38.6628 -25.8424  255 255 255
-78.2674 38.691 -26.1072  255 255 255
20.2005 75.3473 -70.0713  255 255 255
-66.2417 42.619 -31.416  255 255 255
25.5881 76.6706 -72.8431  255 255 255
-6.77377 63.9419 -59.2295  255 255 255
-39.6006 51.1422 -44.4929  255 255 255
26.7717 76.2445 -74.1551  255 255 255
20.0289 73.3021 -71.3972  255 255 255
-11.4828 61.3787 -58.1377  255 255 255
-68.6761 39.84 -31.7564  255 255 255
-67.8118 40.0614 -31.8336  255 255 255
-80.6974 35.8722 -26.5741  255 255 255
-60.0921 42.7118 -35.4001  255 255 255
-6.86196 62.9558 -60.6771  255 255 255
27.4273 75.8545 -75.176  255 255 255
-8.01775 62.0728 -59.8074  255 255 255
-60.485 42.5389 -35.9875  255 255 255
-21.822 56.3913 -53.5132  255 255 255
-50.4626 45.8361 -41.4314  255 255 255
-35.8524 50.9681 -47.9268  255 255 255
-74.6335 36.9274 -30.3951  255 255 255
-23.3453 55.1694 -53.1814  255 255 255
-75.9735 36.232 -30.4498  255 255 255
-18.2669 57.0894 -56.1101  255 255 255
-22.747 55.3183 -54.0444  255 255 255
-76.1155 35.9101 -29.8968  255 255 255
-62.4854 40.0616 -34.6331  255 255 255
-20.2059 56.1534 -55.3128  255 255 255
42.2814 79.6206 -82.7218  255 255 255
-81.7426 33.896 -28.0315  255 255 255
-49.5689 45.0475 -42.5654  255 255 255
-18.2431 56.5583 -56.4019  255 255 255
-71.7691 36.7283 -31.7203  255 255 255
-46.0643 46.0904 -44.0007  255 255 255
-49.227 44.8167 -42.825  255 255 255
-5.98197 61.1188 -62.8368  255 255 255
-62.2541 40.0354 -37.1641  255 255 255
-62.1877 39.9892 -37.0328  255 255 255
-23.7473 53.9019 -54.3967  255 255 255
-53.7249 42.8576 -41.1036  255 255 255
-46.0667 45.5171 -44.4185  255 255 255
-25.5789 53.0945 -53.7271  255 255 255
-10.6701 58.6547 -60.6774  255 255 255
-18.7577 55.5156 -57.2283  255 255 255
-49.9611 43.9274 -43.042  255 255 255
-5.68542 60.3692 -62.906  255 255 255
-47.6434 44.6315 -44.1839  255 255 255
-46.7507 44.8734 -44.6465  255 255 255
-77.2897 34.2927 -31.6136  255 255 255
20.9908 69.9409 -74.7314  255 255 255
52.72 81.6287 -88.3928  255 255 255
-24.4206 52.6629 -54.8822  255 255 255
-70.9967 35.613 -33.3278  255 255 255
-27.6692 51.5028 -53.9079  255 255 255
23.4363 70.7012 -76.3231  255 255 255
-78.3184 33.5101 -31.5273  255 255 255
53.1095 81.6819 -89.61  255 255 255
-72.8001 34.8612 -32.6129  255 255 255
-18.9992 54.5822 -57.902  255 255 255
0.331608 61.5415 -65.9904  255 255 255
-70.6061 35.8141 -34.8937  255 255 255
-70.6061 35.8141 -34.8937  255 255 255
-13.0054 56.4711 -60.7998  255 255 255
-37.2007 47.304 -49.8358  255 255 255
20.5413 69.0425 -75.4833  255 255 255
-5.83483 58.9942 -64.2585  255 255 255
33.7194 73.789 -81.6685  255 255 255
37.5522 75.0123 -82.673  255 255 255
-53.592 40.8722 -41.9085  255 255 255
-58.5333 39.3758 -40.5783  255 255 255
39.2661 75.3904 -84.1692  255 255 255
39.2743 75.4062 -84.2106  255 255 255
15.6576 66.343 -73.8608  255 255 255
29.4703 71.7008 -80.2826  255 255 255
46.8082 77.7423 -86.6133  255 255 255
-11.7092 56.0168 -61.9709  255 255 255
-12.5007 55.7112 -61.9542  255 255 255
-4.85224 58.3651 -64.9049  255 255 255
33.7692 73.2493 -82.8288  255 255 255
-41.8137 44.7934 -48.8335  255 255 255
-48.3737 42.2006 -45.7699  255 255 255
-42.5966 44.1617 -48.6696  255 255 255
-55.2781 39.4527 -42.8279  255 255 255
-55.9163 39.1992 -42.8376  255 255 255
18.4458 66.6521 -76.0839  255 255 255
57.0145 80.6204 -92.6631  255 255 255
12.1471 64.3179 -73.571  255 255 255
-39.5104 44.8894 -50.4178  255 255 255
-51.0252 40.4536 -45.0945  255 255 255
-13.5145 54.2963 -62.4513  255 255 255
-45.5975 42.0196 -46.8358  255 255 255
-45.6223 42.0638 -46.8899  255 255 255
-1.38552 58.681 -67.5301  255 255 255
-1.37781 58.7838 -67.8438  255 255 255
-66.5098 34.3232 -36.2974  255 255 255
56.4495 79.7108 -93.1194  255 255 255
-54.4567 38.8785 -44.1159  255 255 255
-49.6604 39.8583 -45.8531  255 255 255
-16.0264 52.2186 -61.2442  255 255 255
-49.0967 39.9143 -45.9807  255 255 255
-54.8682 38.1254 -44.4641  255 255 255
-46.8961 40.6522 -47.0289  255 255 255
-46.4267 40.7513 -47.0249  255 255 255
-38.763 43.8882 -53.8674  255 255 255
43.0295 73.6309 -88.2551  255 255 255
-46.7236 40.6616 -49.7763  255 255 255
-46.01 40.5176 -48.7625  255 255 255
-67.2124 32.7564 -38.959  255 255 255
-82.2202 27.359 -33.6574  255 255 255
-82.1296 27.2869 -33.4277  255 255 255
-77.4442 28.9359 -35.7414  255 255 255
-19.4913 47.2977 -55.9074  255 255 255
-81.421 27.2121 -34.1042  255 255 255
-49.1046 38.1843 -48.5924  255 255 255
-42.4818 40.4201 -51.5647  255 255 255
-47.1464 38.647 -49.5249  255 255 255
-13.6894 50.4943 -65.3184  255 255 255
-39.7091 41.0937 -54.193  255 255 255
-52.6427 36.1707 -48.0561  255 255 255
-41.0815 40.385 -53.6945  255 255 255
-8.8705 51.2313 -68.6035  255 255 255
10.9549 58.4967 -77.3272  255 255 255
-52.5539 35.2777 -48.7819  255 255 255
60.3513 76.1614 -99.1216  255 255 255
9.25092 57.4185 -76.434  255 255 255
10.6106 58.1831 -77.953  255 255 255
-65.4853 30.6864 -43.3727  255 255 255
-65.4853 30.6864 -43.3727  255 255 255
-12.1934 49.3899 -67.6997  255 255 255
-28.9099 43.0992 -60.65  255 255 255
18.5752 60.471 -81.625  255 255 255
-10.9914 49.4967 -68.5023  255 255 255
-52.8181 34.2886 -49.5195  255 255 255
25.1619 62.404 -84.9154  255 255 255
24.6838 62.1231 -84.6516  255 255 255
18.5053 59.8166 -82.0308  255 255 255
-54.4168 33.3285 -49.4068  255 255 255
18.58 59.5652 -82.1823  255 255 255
-12.2835 48.0492 -68.921  255 255 255
-82.5508 23.3088 -37.2834  255 255 255
9.0951 55.6234 -78.8039  255 255 255
-7.63632 49.4543 -71.1699  255 255 255
-28.7557 41.5984 -61.7956  255 255 255
-65.0938 28.8232 -45.4966  255 255 255
-40.5223 37.1242 -56.4262  255 255 255
-63.4418 29.5613 -47.3956  255 255 255
-52.8459 32.7505 -50.7506  255 255 255
25.9991 61.1195 -86.462  255 255 255
-59.5349 30.2719 -47.9557  255 255 255
-74.2941 26.5664 -46.6085  255 255 255
25.228 60.6811 -86.4732  255 255 255
41.0689 66.3635 -93.3111  255 255 255
27.1913 61.3204 -87.6094  255 255 255
27.1913 61.3204 -87.6094  255 255 255
24.9777 60.4245 -87.2408  255 255 255
-13.4988 45.9641 -69.9216  255 255 255
45.8663 67.1889 -95.9067  255 255 255
45.9021 67.2549 -96.0843  255 255 255
-17.2093 44.0622 -68.3058  255 255 255
24.8957 59.3532 -87.3128  255 255 255
24.8873 59.3462 -87.2794  255 255 255
26.0205 59.7333 -87.7915  255 255 255
26.7658 59.9197 -87.8951  255 255 255
45.6224 66.5767 -96.3129  255 255 255
46.9883 67.0945 -96.935  255 255 255
51.088 68.3815 -98.981  255 255 255
5.8492 52.0432 -79.333  255 255 255
25.199 59.1819 -88.438  255 255 255
-34.2659 37.4892 -61.306  255 255 255
55.5227 69.6425 -100.768  255 255 255
-65.7738 26.2663 -47.2095  255 255 255
-36.2016 36.5355 -61.1362  255 255 255
42.8346 64.5682 -95.8028  255 255 255
5.05545 50.8021 -79.5985  255 255 255
5.07784 50.8064 -79.503  255 255 255
28.3815 59.2282 -90.4365  255 255 255
24.7863 57.3587 -87.8991  255 255 255
-28.3856 37.9527 -65.4462  255 255 255
-39.3818 33.4742 -60.486  255 255 255
54.9044 67.3118 -102.836  255 255 255
-36.8941 34.3125 -62.1187  255 255 255
49.4534 64.8688 -100.833  255 255 255
49.3675 64.8689 -100.659  255 255 255
44.397 62.7823 -97.8792  255 255 255
